ply
format ascii 1.0
element vertex 600
property float x
property float y
property float z
element face 0
end_header
6.377183185105753660e-01 -5.446628986061214928e-01 -5.446628986061214928e-01
6.892490165479300268e-01 -5.886742725082763084e-01 -4.223723405652445306e-01
7.252803187093973536e-01 -6.194479117564836157e-01 -3.004209445317132521e-01
7.480430458253629622e-01 -6.388891173347053254e-01 -1.795892461802634510e-01
7.590479329574325584e-01 -6.482881788799114142e-01 -5.973836788544847898e-02
7.590479329574325584e-01 -6.482881788799114142e-01 5.973836788544847898e-02
7.480430458253629622e-01 -6.388891173347053254e-01 1.795892461802635898e-01
7.252803187093973536e-01 -6.194479117564836157e-01 3.004209445317133076e-01
6.892490165479300268e-01 -5.886742725082763084e-01 4.223723405652445306e-01
6.377183185105753660e-01 -5.446628986061214928e-01 5.446628986061214928e-01
6.892490165479300268e-01 -4.223723405652445306e-01 -5.886742725082763084e-01
7.557023530826018076e-01 -4.630949975682195907e-01 -4.630949975682195907e-01
8.039723861574018526e-01 -4.926749118799975680e-01 -3.330162661198550200e-01
8.353188162906891590e-01 -5.118840289710493430e-01 -2.005423048513400308e-01
8.507269132579422521e-01 -5.213261229363185256e-01 -6.695366011503915693e-02
8.507269132579422521e-01 -5.213261229363185256e-01 6.695366011503915693e-02
8.353188162906891590e-01 -5.118840289710493430e-01 2.005423048513401696e-01
8.039723861574018526e-01 -4.926749118799975680e-01 3.330162661198550755e-01
7.557023530826018076e-01 -4.630949975682195907e-01 4.630949975682195907e-01
6.892490165479300268e-01 -4.223723405652445306e-01 5.886742725082763084e-01
7.252803187093972426e-01 -3.004209445317131966e-01 -6.194479117564835047e-01
8.039723861574018526e-01 -3.330162661198550200e-01 -4.926749118799975680e-01
8.628562094610168209e-01 -3.574067443365932517e-01 -3.574067443365932517e-01
9.019590831835524458e-01 -3.736036849602299981e-01 -2.165412174317463689e-01
9.214469562861201668e-01 -3.816758263011194030e-01 -7.251944820806721648e-02
9.214469562861201668e-01 -3.816758263011194030e-01 7.251944820806721648e-02
9.019590831835524458e-01 -3.736036849602299981e-01 2.165412174317465077e-01
8.628562094610168209e-01 -3.574067443365932517e-01 3.574067443365933072e-01
8.039723861574018526e-01 -3.330162661198550200e-01 4.926749118799975680e-01
7.252803187093972426e-01 -3.004209445317131966e-01 6.194479117564835047e-01
7.480430458253629622e-01 -1.795892461802634510e-01 -6.388891173347053254e-01
8.353188162906891590e-01 -2.005423048513400308e-01 -5.118840289710493430e-01
9.019590831835524458e-01 -2.165412174317463689e-01 -3.736036849602299981e-01
9.469104196447699628e-01 -2.273330785083482464e-01 -2.273330785083482464e-01
9.695350683300454353e-01 -2.327647760893327700e-01 -7.630406470389762552e-02
9.695350683300454353e-01 -2.327647760893327700e-01 7.630406470389762552e-02
9.469104196447699628e-01 -2.273330785083482464e-01 2.273330785083484129e-01
9.019590831835524458e-01 -2.165412174317463689e-01 3.736036849602301091e-01
8.353188162906891590e-01 -2.005423048513400308e-01 5.118840289710493430e-01
7.480430458253629622e-01 -1.795892461802634510e-01 6.388891173347053254e-01
7.590479329574324474e-01 -5.973836788544846510e-02 -6.482881788799113032e-01
8.507269132579422521e-01 -6.695366011503915693e-02 -5.213261229363185256e-01
9.214469562861201668e-01 -7.251944820806721648e-02 -3.816758263011194030e-01
9.695350683300454353e-01 -7.630406470389762552e-02 -2.327647760893327700e-01
9.938630013171814159e-01 -7.821871455350017099e-02 -7.821871455350017099e-02
9.938630013171814159e-01 -7.821871455350017099e-02 7.821871455350017099e-02
9.695350683300454353e-01 -7.630406470389762552e-02 2.327647760893329365e-01
9.214469562861201668e-01 -7.251944820806721648e-02 3.816758263011195140e-01
8.507269132579422521e-01 -6.695366011503915693e-02 5.213261229363185256e-01
7.590479329574324474e-01 -5.973836788544846510e-02 6.482881788799113032e-01
7.590479329574324474e-01 5.973836788544846510e-02 -6.482881788799113032e-01
8.507269132579422521e-01 6.695366011503915693e-02 -5.213261229363185256e-01
9.214469562861201668e-01 7.251944820806721648e-02 -3.816758263011194030e-01
9.695350683300454353e-01 7.630406470389762552e-02 -2.327647760893327700e-01
9.938630013171814159e-01 7.821871455350017099e-02 -7.821871455350017099e-02
9.938630013171814159e-01 7.821871455350017099e-02 7.821871455350017099e-02
9.695350683300454353e-01 7.630406470389762552e-02 2.327647760893329365e-01
9.214469562861201668e-01 7.251944820806721648e-02 3.816758263011195140e-01
8.507269132579422521e-01 6.695366011503915693e-02 5.213261229363185256e-01
7.590479329574324474e-01 5.973836788544846510e-02 6.482881788799113032e-01
7.480430458253629622e-01 1.795892461802635898e-01 -6.388891173347053254e-01
8.353188162906891590e-01 2.005423048513401696e-01 -5.118840289710493430e-01
9.019590831835524458e-01 2.165412174317465077e-01 -3.736036849602299981e-01
9.469104196447699628e-01 2.273330785083484129e-01 -2.273330785083482464e-01
9.695350683300454353e-01 2.327647760893329365e-01 -7.630406470389762552e-02
9.695350683300454353e-01 2.327647760893329365e-01 7.630406470389762552e-02
9.469104196447699628e-01 2.273330785083484129e-01 2.273330785083484129e-01
9.019590831835524458e-01 2.165412174317465077e-01 3.736036849602301091e-01
8.353188162906891590e-01 2.005423048513401696e-01 5.118840289710493430e-01
7.480430458253629622e-01 1.795892461802635898e-01 6.388891173347053254e-01
7.252803187093972426e-01 3.004209445317132521e-01 -6.194479117564835047e-01
8.039723861574018526e-01 3.330162661198550755e-01 -4.926749118799975680e-01
8.628562094610168209e-01 3.574067443365933072e-01 -3.574067443365932517e-01
9.019590831835524458e-01 3.736036849602301091e-01 -2.165412174317463689e-01
9.214469562861201668e-01 3.816758263011195140e-01 -7.251944820806721648e-02
9.214469562861201668e-01 3.816758263011195140e-01 7.251944820806721648e-02
9.019590831835524458e-01 3.736036849602301091e-01 2.165412174317465077e-01
8.628562094610168209e-01 3.574067443365933072e-01 3.574067443365933072e-01
8.039723861574018526e-01 3.330162661198550755e-01 4.926749118799975680e-01
7.252803187093972426e-01 3.004209445317132521e-01 6.194479117564835047e-01
6.892490165479300268e-01 4.223723405652445306e-01 -5.886742725082763084e-01
7.557023530826018076e-01 4.630949975682195907e-01 -4.630949975682195907e-01
8.039723861574018526e-01 4.926749118799975680e-01 -3.330162661198550200e-01
8.353188162906891590e-01 5.118840289710493430e-01 -2.005423048513400308e-01
8.507269132579422521e-01 5.213261229363185256e-01 -6.695366011503915693e-02
8.507269132579422521e-01 5.213261229363185256e-01 6.695366011503915693e-02
8.353188162906891590e-01 5.118840289710493430e-01 2.005423048513401696e-01
8.039723861574018526e-01 4.926749118799975680e-01 3.330162661198550755e-01
7.557023530826018076e-01 4.630949975682195907e-01 4.630949975682195907e-01
6.892490165479300268e-01 4.223723405652445306e-01 5.886742725082763084e-01
6.377183185105753660e-01 5.446628986061214928e-01 -5.446628986061214928e-01
6.892490165479300268e-01 5.886742725082763084e-01 -4.223723405652445306e-01
7.252803187093973536e-01 6.194479117564836157e-01 -3.004209445317132521e-01
7.480430458253629622e-01 6.388891173347053254e-01 -1.795892461802634510e-01
7.590479329574325584e-01 6.482881788799114142e-01 -5.973836788544847898e-02
7.590479329574325584e-01 6.482881788799114142e-01 5.973836788544847898e-02
7.480430458253629622e-01 6.388891173347053254e-01 1.795892461802635898e-01
7.252803187093973536e-01 6.194479117564836157e-01 3.004209445317133076e-01
6.892490165479300268e-01 5.886742725082763084e-01 4.223723405652445306e-01
6.377183185105753660e-01 5.446628986061214928e-01 5.446628986061214928e-01
-6.377183185105753660e-01 -5.446628986061214928e-01 5.446628986061214928e-01
-6.892490165479300268e-01 -5.886742725082763084e-01 4.223723405652445306e-01
-7.252803187093973536e-01 -6.194479117564836157e-01 3.004209445317132521e-01
-7.480430458253629622e-01 -6.388891173347053254e-01 1.795892461802634510e-01
-7.590479329574325584e-01 -6.482881788799114142e-01 5.973836788544847898e-02
-7.590479329574325584e-01 -6.482881788799114142e-01 -5.973836788544847898e-02
-7.480430458253629622e-01 -6.388891173347053254e-01 -1.795892461802635898e-01
-7.252803187093973536e-01 -6.194479117564836157e-01 -3.004209445317133076e-01
-6.892490165479300268e-01 -5.886742725082763084e-01 -4.223723405652445306e-01
-6.377183185105753660e-01 -5.446628986061214928e-01 -5.446628986061214928e-01
-6.892490165479300268e-01 -4.223723405652445306e-01 5.886742725082763084e-01
-7.557023530826018076e-01 -4.630949975682195907e-01 4.630949975682195907e-01
-8.039723861574018526e-01 -4.926749118799975680e-01 3.330162661198550200e-01
-8.353188162906891590e-01 -5.118840289710493430e-01 2.005423048513400308e-01
-8.507269132579422521e-01 -5.213261229363185256e-01 6.695366011503915693e-02
-8.507269132579422521e-01 -5.213261229363185256e-01 -6.695366011503915693e-02
-8.353188162906891590e-01 -5.118840289710493430e-01 -2.005423048513401696e-01
-8.039723861574018526e-01 -4.926749118799975680e-01 -3.330162661198550755e-01
-7.557023530826018076e-01 -4.630949975682195907e-01 -4.630949975682195907e-01
-6.892490165479300268e-01 -4.223723405652445306e-01 -5.886742725082763084e-01
-7.252803187093972426e-01 -3.004209445317131966e-01 6.194479117564835047e-01
-8.039723861574018526e-01 -3.330162661198550200e-01 4.926749118799975680e-01
-8.628562094610168209e-01 -3.574067443365932517e-01 3.574067443365932517e-01
-9.019590831835524458e-01 -3.736036849602299981e-01 2.165412174317463689e-01
-9.214469562861201668e-01 -3.816758263011194030e-01 7.251944820806721648e-02
-9.214469562861201668e-01 -3.816758263011194030e-01 -7.251944820806721648e-02
-9.019590831835524458e-01 -3.736036849602299981e-01 -2.165412174317465077e-01
-8.628562094610168209e-01 -3.574067443365932517e-01 -3.574067443365933072e-01
-8.039723861574018526e-01 -3.330162661198550200e-01 -4.926749118799975680e-01
-7.252803187093972426e-01 -3.004209445317131966e-01 -6.194479117564835047e-01
-7.480430458253629622e-01 -1.795892461802634510e-01 6.388891173347053254e-01
-8.353188162906891590e-01 -2.005423048513400308e-01 5.118840289710493430e-01
-9.019590831835524458e-01 -2.165412174317463689e-01 3.736036849602299981e-01
-9.469104196447699628e-01 -2.273330785083482464e-01 2.273330785083482464e-01
-9.695350683300454353e-01 -2.327647760893327700e-01 7.630406470389762552e-02
-9.695350683300454353e-01 -2.327647760893327700e-01 -7.630406470389762552e-02
-9.469104196447699628e-01 -2.273330785083482464e-01 -2.273330785083484129e-01
-9.019590831835524458e-01 -2.165412174317463689e-01 -3.736036849602301091e-01
-8.353188162906891590e-01 -2.005423048513400308e-01 -5.118840289710493430e-01
-7.480430458253629622e-01 -1.795892461802634510e-01 -6.388891173347053254e-01
-7.590479329574324474e-01 -5.973836788544846510e-02 6.482881788799113032e-01
-8.507269132579422521e-01 -6.695366011503915693e-02 5.213261229363185256e-01
-9.214469562861201668e-01 -7.251944820806721648e-02 3.816758263011194030e-01
-9.695350683300454353e-01 -7.630406470389762552e-02 2.327647760893327700e-01
-9.938630013171814159e-01 -7.821871455350017099e-02 7.821871455350017099e-02
-9.938630013171814159e-01 -7.821871455350017099e-02 -7.821871455350017099e-02
-9.695350683300454353e-01 -7.630406470389762552e-02 -2.327647760893329365e-01
-9.214469562861201668e-01 -7.251944820806721648e-02 -3.816758263011195140e-01
-8.507269132579422521e-01 -6.695366011503915693e-02 -5.213261229363185256e-01
-7.590479329574324474e-01 -5.973836788544846510e-02 -6.482881788799113032e-01
-7.590479329574324474e-01 5.973836788544846510e-02 6.482881788799113032e-01
-8.507269132579422521e-01 6.695366011503915693e-02 5.213261229363185256e-01
-9.214469562861201668e-01 7.251944820806721648e-02 3.816758263011194030e-01
-9.695350683300454353e-01 7.630406470389762552e-02 2.327647760893327700e-01
-9.938630013171814159e-01 7.821871455350017099e-02 7.821871455350017099e-02
-9.938630013171814159e-01 7.821871455350017099e-02 -7.821871455350017099e-02
-9.695350683300454353e-01 7.630406470389762552e-02 -2.327647760893329365e-01
-9.214469562861201668e-01 7.251944820806721648e-02 -3.816758263011195140e-01
-8.507269132579422521e-01 6.695366011503915693e-02 -5.213261229363185256e-01
-7.590479329574324474e-01 5.973836788544846510e-02 -6.482881788799113032e-01
-7.480430458253629622e-01 1.795892461802635898e-01 6.388891173347053254e-01
-8.353188162906891590e-01 2.005423048513401696e-01 5.118840289710493430e-01
-9.019590831835524458e-01 2.165412174317465077e-01 3.736036849602299981e-01
-9.469104196447699628e-01 2.273330785083484129e-01 2.273330785083482464e-01
-9.695350683300454353e-01 2.327647760893329365e-01 7.630406470389762552e-02
-9.695350683300454353e-01 2.327647760893329365e-01 -7.630406470389762552e-02
-9.469104196447699628e-01 2.273330785083484129e-01 -2.273330785083484129e-01
-9.019590831835524458e-01 2.165412174317465077e-01 -3.736036849602301091e-01
-8.353188162906891590e-01 2.005423048513401696e-01 -5.118840289710493430e-01
-7.480430458253629622e-01 1.795892461802635898e-01 -6.388891173347053254e-01
-7.252803187093972426e-01 3.004209445317132521e-01 6.194479117564835047e-01
-8.039723861574018526e-01 3.330162661198550755e-01 4.926749118799975680e-01
-8.628562094610168209e-01 3.574067443365933072e-01 3.574067443365932517e-01
-9.019590831835524458e-01 3.736036849602301091e-01 2.165412174317463689e-01
-9.214469562861201668e-01 3.816758263011195140e-01 7.251944820806721648e-02
-9.214469562861201668e-01 3.816758263011195140e-01 -7.251944820806721648e-02
-9.019590831835524458e-01 3.736036849602301091e-01 -2.165412174317465077e-01
-8.628562094610168209e-01 3.574067443365933072e-01 -3.574067443365933072e-01
-8.039723861574018526e-01 3.330162661198550755e-01 -4.926749118799975680e-01
-7.252803187093972426e-01 3.004209445317132521e-01 -6.194479117564835047e-01
-6.892490165479300268e-01 4.223723405652445306e-01 5.886742725082763084e-01
-7.557023530826018076e-01 4.630949975682195907e-01 4.630949975682195907e-01
-8.039723861574018526e-01 4.926749118799975680e-01 3.330162661198550200e-01
-8.353188162906891590e-01 5.118840289710493430e-01 2.005423048513400308e-01
-8.507269132579422521e-01 5.213261229363185256e-01 6.695366011503915693e-02
-8.507269132579422521e-01 5.213261229363185256e-01 -6.695366011503915693e-02
-8.353188162906891590e-01 5.118840289710493430e-01 -2.005423048513401696e-01
-8.039723861574018526e-01 4.926749118799975680e-01 -3.330162661198550755e-01
-7.557023530826018076e-01 4.630949975682195907e-01 -4.630949975682195907e-01
-6.892490165479300268e-01 4.223723405652445306e-01 -5.886742725082763084e-01
-6.377183185105753660e-01 5.446628986061214928e-01 5.446628986061214928e-01
-6.892490165479300268e-01 5.886742725082763084e-01 4.223723405652445306e-01
-7.252803187093973536e-01 6.194479117564836157e-01 3.004209445317132521e-01
-7.480430458253629622e-01 6.388891173347053254e-01 1.795892461802634510e-01
-7.590479329574325584e-01 6.482881788799114142e-01 5.973836788544847898e-02
-7.590479329574325584e-01 6.482881788799114142e-01 -5.973836788544847898e-02
-7.480430458253629622e-01 6.388891173347053254e-01 -1.795892461802635898e-01
-7.252803187093973536e-01 6.194479117564836157e-01 -3.004209445317133076e-01
-6.892490165479300268e-01 5.886742725082763084e-01 -4.223723405652445306e-01
-6.377183185105753660e-01 5.446628986061214928e-01 -5.446628986061214928e-01
-5.446628986061214928e-01 6.377183185105753660e-01 -5.446628986061214928e-01
-4.223723405652445306e-01 6.892490165479300268e-01 -5.886742725082763084e-01
-3.004209445317131966e-01 7.252803187093972426e-01 -6.194479117564835047e-01
-1.795892461802634510e-01 7.480430458253629622e-01 -6.388891173347053254e-01
-5.973836788544846510e-02 7.590479329574324474e-01 -6.482881788799113032e-01
5.973836788544846510e-02 7.590479329574324474e-01 -6.482881788799113032e-01
1.795892461802635898e-01 7.480430458253629622e-01 -6.388891173347053254e-01
3.004209445317132521e-01 7.252803187093972426e-01 -6.194479117564835047e-01
4.223723405652445306e-01 6.892490165479300268e-01 -5.886742725082763084e-01
5.446628986061214928e-01 6.377183185105753660e-01 -5.446628986061214928e-01
-5.886742725082763084e-01 6.892490165479300268e-01 -4.223723405652445306e-01
-4.630949975682195907e-01 7.557023530826018076e-01 -4.630949975682195907e-01
-3.330162661198550200e-01 8.039723861574018526e-01 -4.926749118799975680e-01
-2.005423048513400308e-01 8.353188162906891590e-01 -5.118840289710493430e-01
-6.695366011503915693e-02 8.507269132579422521e-01 -5.213261229363185256e-01
6.695366011503915693e-02 8.507269132579422521e-01 -5.213261229363185256e-01
2.005423048513401696e-01 8.353188162906891590e-01 -5.118840289710493430e-01
3.330162661198550755e-01 8.039723861574018526e-01 -4.926749118799975680e-01
4.630949975682195907e-01 7.557023530826018076e-01 -4.630949975682195907e-01
5.886742725082763084e-01 6.892490165479300268e-01 -4.223723405652445306e-01
-6.194479117564836157e-01 7.252803187093973536e-01 -3.004209445317132521e-01
-4.926749118799975680e-01 8.039723861574018526e-01 -3.330162661198550200e-01
-3.574067443365932517e-01 8.628562094610168209e-01 -3.574067443365932517e-01
-2.165412174317463689e-01 9.019590831835524458e-01 -3.736036849602299981e-01
-7.251944820806721648e-02 9.214469562861201668e-01 -3.816758263011194030e-01
7.251944820806721648e-02 9.214469562861201668e-01 -3.816758263011194030e-01
2.165412174317465077e-01 9.019590831835524458e-01 -3.736036849602299981e-01
3.574067443365933072e-01 8.628562094610168209e-01 -3.574067443365932517e-01
4.926749118799975680e-01 8.039723861574018526e-01 -3.330162661198550200e-01
6.194479117564836157e-01 7.252803187093973536e-01 -3.004209445317132521e-01
-6.388891173347053254e-01 7.480430458253629622e-01 -1.795892461802634510e-01
-5.118840289710493430e-01 8.353188162906891590e-01 -2.005423048513400308e-01
-3.736036849602299981e-01 9.019590831835524458e-01 -2.165412174317463689e-01
-2.273330785083482464e-01 9.469104196447699628e-01 -2.273330785083482464e-01
-7.630406470389762552e-02 9.695350683300454353e-01 -2.327647760893327700e-01
7.630406470389762552e-02 9.695350683300454353e-01 -2.327647760893327700e-01
2.273330785083484129e-01 9.469104196447699628e-01 -2.273330785083482464e-01
3.736036849602301091e-01 9.019590831835524458e-01 -2.165412174317463689e-01
5.118840289710493430e-01 8.353188162906891590e-01 -2.005423048513400308e-01
6.388891173347053254e-01 7.480430458253629622e-01 -1.795892461802634510e-01
-6.482881788799114142e-01 7.590479329574325584e-01 -5.973836788544847898e-02
-5.213261229363185256e-01 8.507269132579422521e-01 -6.695366011503915693e-02
-3.816758263011194030e-01 9.214469562861201668e-01 -7.251944820806721648e-02
-2.327647760893327700e-01 9.695350683300454353e-01 -7.630406470389762552e-02
-7.821871455350017099e-02 9.938630013171814159e-01 -7.821871455350017099e-02
7.821871455350017099e-02 9.938630013171814159e-01 -7.821871455350017099e-02
2.327647760893329365e-01 9.695350683300454353e-01 -7.630406470389762552e-02
3.816758263011195140e-01 9.214469562861201668e-01 -7.251944820806721648e-02
5.213261229363185256e-01 8.507269132579422521e-01 -6.695366011503915693e-02
6.482881788799114142e-01 7.590479329574325584e-01 -5.973836788544847898e-02
-6.482881788799114142e-01 7.590479329574325584e-01 5.973836788544847898e-02
-5.213261229363185256e-01 8.507269132579422521e-01 6.695366011503915693e-02
-3.816758263011194030e-01 9.214469562861201668e-01 7.251944820806721648e-02
-2.327647760893327700e-01 9.695350683300454353e-01 7.630406470389762552e-02
-7.821871455350017099e-02 9.938630013171814159e-01 7.821871455350017099e-02
7.821871455350017099e-02 9.938630013171814159e-01 7.821871455350017099e-02
2.327647760893329365e-01 9.695350683300454353e-01 7.630406470389762552e-02
3.816758263011195140e-01 9.214469562861201668e-01 7.251944820806721648e-02
5.213261229363185256e-01 8.507269132579422521e-01 6.695366011503915693e-02
6.482881788799114142e-01 7.590479329574325584e-01 5.973836788544847898e-02
-6.388891173347053254e-01 7.480430458253629622e-01 1.795892461802635898e-01
-5.118840289710493430e-01 8.353188162906891590e-01 2.005423048513401696e-01
-3.736036849602299981e-01 9.019590831835524458e-01 2.165412174317465077e-01
-2.273330785083482464e-01 9.469104196447699628e-01 2.273330785083484129e-01
-7.630406470389762552e-02 9.695350683300454353e-01 2.327647760893329365e-01
7.630406470389762552e-02 9.695350683300454353e-01 2.327647760893329365e-01
2.273330785083484129e-01 9.469104196447699628e-01 2.273330785083484129e-01
3.736036849602301091e-01 9.019590831835524458e-01 2.165412174317465077e-01
5.118840289710493430e-01 8.353188162906891590e-01 2.005423048513401696e-01
6.388891173347053254e-01 7.480430458253629622e-01 1.795892461802635898e-01
-6.194479117564836157e-01 7.252803187093973536e-01 3.004209445317133076e-01
-4.926749118799975680e-01 8.039723861574018526e-01 3.330162661198550755e-01
-3.574067443365932517e-01 8.628562094610168209e-01 3.574067443365933072e-01
-2.165412174317463689e-01 9.019590831835524458e-01 3.736036849602301091e-01
-7.251944820806721648e-02 9.214469562861201668e-01 3.816758263011195140e-01
7.251944820806721648e-02 9.214469562861201668e-01 3.816758263011195140e-01
2.165412174317465077e-01 9.019590831835524458e-01 3.736036849602301091e-01
3.574067443365933072e-01 8.628562094610168209e-01 3.574067443365933072e-01
4.926749118799975680e-01 8.039723861574018526e-01 3.330162661198550755e-01
6.194479117564836157e-01 7.252803187093973536e-01 3.004209445317133076e-01
-5.886742725082763084e-01 6.892490165479300268e-01 4.223723405652445306e-01
-4.630949975682195907e-01 7.557023530826018076e-01 4.630949975682195907e-01
-3.330162661198550200e-01 8.039723861574018526e-01 4.926749118799975680e-01
-2.005423048513400308e-01 8.353188162906891590e-01 5.118840289710493430e-01
-6.695366011503915693e-02 8.507269132579422521e-01 5.213261229363185256e-01
6.695366011503915693e-02 8.507269132579422521e-01 5.213261229363185256e-01
2.005423048513401696e-01 8.353188162906891590e-01 5.118840289710493430e-01
3.330162661198550755e-01 8.039723861574018526e-01 4.926749118799975680e-01
4.630949975682195907e-01 7.557023530826018076e-01 4.630949975682195907e-01
5.886742725082763084e-01 6.892490165479300268e-01 4.223723405652445306e-01
-5.446628986061214928e-01 6.377183185105753660e-01 5.446628986061214928e-01
-4.223723405652445306e-01 6.892490165479300268e-01 5.886742725082763084e-01
-3.004209445317131966e-01 7.252803187093972426e-01 6.194479117564835047e-01
-1.795892461802634510e-01 7.480430458253629622e-01 6.388891173347053254e-01
-5.973836788544846510e-02 7.590479329574324474e-01 6.482881788799113032e-01
5.973836788544846510e-02 7.590479329574324474e-01 6.482881788799113032e-01
1.795892461802635898e-01 7.480430458253629622e-01 6.388891173347053254e-01
3.004209445317132521e-01 7.252803187093972426e-01 6.194479117564835047e-01
4.223723405652445306e-01 6.892490165479300268e-01 5.886742725082763084e-01
5.446628986061214928e-01 6.377183185105753660e-01 5.446628986061214928e-01
-5.446628986061214928e-01 -6.377183185105753660e-01 5.446628986061214928e-01
-4.223723405652445306e-01 -6.892490165479300268e-01 5.886742725082763084e-01
-3.004209445317131966e-01 -7.252803187093972426e-01 6.194479117564835047e-01
-1.795892461802634510e-01 -7.480430458253629622e-01 6.388891173347053254e-01
-5.973836788544846510e-02 -7.590479329574324474e-01 6.482881788799113032e-01
5.973836788544846510e-02 -7.590479329574324474e-01 6.482881788799113032e-01
1.795892461802635898e-01 -7.480430458253629622e-01 6.388891173347053254e-01
3.004209445317132521e-01 -7.252803187093972426e-01 6.194479117564835047e-01
4.223723405652445306e-01 -6.892490165479300268e-01 5.886742725082763084e-01
5.446628986061214928e-01 -6.377183185105753660e-01 5.446628986061214928e-01
-5.886742725082763084e-01 -6.892490165479300268e-01 4.223723405652445306e-01
-4.630949975682195907e-01 -7.557023530826018076e-01 4.630949975682195907e-01
-3.330162661198550200e-01 -8.039723861574018526e-01 4.926749118799975680e-01
-2.005423048513400308e-01 -8.353188162906891590e-01 5.118840289710493430e-01
-6.695366011503915693e-02 -8.507269132579422521e-01 5.213261229363185256e-01
6.695366011503915693e-02 -8.507269132579422521e-01 5.213261229363185256e-01
2.005423048513401696e-01 -8.353188162906891590e-01 5.118840289710493430e-01
3.330162661198550755e-01 -8.039723861574018526e-01 4.926749118799975680e-01
4.630949975682195907e-01 -7.557023530826018076e-01 4.630949975682195907e-01
5.886742725082763084e-01 -6.892490165479300268e-01 4.223723405652445306e-01
-6.194479117564836157e-01 -7.252803187093973536e-01 3.004209445317132521e-01
-4.926749118799975680e-01 -8.039723861574018526e-01 3.330162661198550200e-01
-3.574067443365932517e-01 -8.628562094610168209e-01 3.574067443365932517e-01
-2.165412174317463689e-01 -9.019590831835524458e-01 3.736036849602299981e-01
-7.251944820806721648e-02 -9.214469562861201668e-01 3.816758263011194030e-01
7.251944820806721648e-02 -9.214469562861201668e-01 3.816758263011194030e-01
2.165412174317465077e-01 -9.019590831835524458e-01 3.736036849602299981e-01
3.574067443365933072e-01 -8.628562094610168209e-01 3.574067443365932517e-01
4.926749118799975680e-01 -8.039723861574018526e-01 3.330162661198550200e-01
6.194479117564836157e-01 -7.252803187093973536e-01 3.004209445317132521e-01
-6.388891173347053254e-01 -7.480430458253629622e-01 1.795892461802634510e-01
-5.118840289710493430e-01 -8.353188162906891590e-01 2.005423048513400308e-01
-3.736036849602299981e-01 -9.019590831835524458e-01 2.165412174317463689e-01
-2.273330785083482464e-01 -9.469104196447699628e-01 2.273330785083482464e-01
-7.630406470389762552e-02 -9.695350683300454353e-01 2.327647760893327700e-01
7.630406470389762552e-02 -9.695350683300454353e-01 2.327647760893327700e-01
2.273330785083484129e-01 -9.469104196447699628e-01 2.273330785083482464e-01
3.736036849602301091e-01 -9.019590831835524458e-01 2.165412174317463689e-01
5.118840289710493430e-01 -8.353188162906891590e-01 2.005423048513400308e-01
6.388891173347053254e-01 -7.480430458253629622e-01 1.795892461802634510e-01
-6.482881788799114142e-01 -7.590479329574325584e-01 5.973836788544847898e-02
-5.213261229363185256e-01 -8.507269132579422521e-01 6.695366011503915693e-02
-3.816758263011194030e-01 -9.214469562861201668e-01 7.251944820806721648e-02
-2.327647760893327700e-01 -9.695350683300454353e-01 7.630406470389762552e-02
-7.821871455350017099e-02 -9.938630013171814159e-01 7.821871455350017099e-02
7.821871455350017099e-02 -9.938630013171814159e-01 7.821871455350017099e-02
2.327647760893329365e-01 -9.695350683300454353e-01 7.630406470389762552e-02
3.816758263011195140e-01 -9.214469562861201668e-01 7.251944820806721648e-02
5.213261229363185256e-01 -8.507269132579422521e-01 6.695366011503915693e-02
6.482881788799114142e-01 -7.590479329574325584e-01 5.973836788544847898e-02
-6.482881788799114142e-01 -7.590479329574325584e-01 -5.973836788544847898e-02
-5.213261229363185256e-01 -8.507269132579422521e-01 -6.695366011503915693e-02
-3.816758263011194030e-01 -9.214469562861201668e-01 -7.251944820806721648e-02
-2.327647760893327700e-01 -9.695350683300454353e-01 -7.630406470389762552e-02
-7.821871455350017099e-02 -9.938630013171814159e-01 -7.821871455350017099e-02
7.821871455350017099e-02 -9.938630013171814159e-01 -7.821871455350017099e-02
2.327647760893329365e-01 -9.695350683300454353e-01 -7.630406470389762552e-02
3.816758263011195140e-01 -9.214469562861201668e-01 -7.251944820806721648e-02
5.213261229363185256e-01 -8.507269132579422521e-01 -6.695366011503915693e-02
6.482881788799114142e-01 -7.590479329574325584e-01 -5.973836788544847898e-02
-6.388891173347053254e-01 -7.480430458253629622e-01 -1.795892461802635898e-01
-5.118840289710493430e-01 -8.353188162906891590e-01 -2.005423048513401696e-01
-3.736036849602299981e-01 -9.019590831835524458e-01 -2.165412174317465077e-01
-2.273330785083482464e-01 -9.469104196447699628e-01 -2.273330785083484129e-01
-7.630406470389762552e-02 -9.695350683300454353e-01 -2.327647760893329365e-01
7.630406470389762552e-02 -9.695350683300454353e-01 -2.327647760893329365e-01
2.273330785083484129e-01 -9.469104196447699628e-01 -2.273330785083484129e-01
3.736036849602301091e-01 -9.019590831835524458e-01 -2.165412174317465077e-01
5.118840289710493430e-01 -8.353188162906891590e-01 -2.005423048513401696e-01
6.388891173347053254e-01 -7.480430458253629622e-01 -1.795892461802635898e-01
-6.194479117564836157e-01 -7.252803187093973536e-01 -3.004209445317133076e-01
-4.926749118799975680e-01 -8.039723861574018526e-01 -3.330162661198550755e-01
-3.574067443365932517e-01 -8.628562094610168209e-01 -3.574067443365933072e-01
-2.165412174317463689e-01 -9.019590831835524458e-01 -3.736036849602301091e-01
-7.251944820806721648e-02 -9.214469562861201668e-01 -3.816758263011195140e-01
7.251944820806721648e-02 -9.214469562861201668e-01 -3.816758263011195140e-01
2.165412174317465077e-01 -9.019590831835524458e-01 -3.736036849602301091e-01
3.574067443365933072e-01 -8.628562094610168209e-01 -3.574067443365933072e-01
4.926749118799975680e-01 -8.039723861574018526e-01 -3.330162661198550755e-01
6.194479117564836157e-01 -7.252803187093973536e-01 -3.004209445317133076e-01
-5.886742725082763084e-01 -6.892490165479300268e-01 -4.223723405652445306e-01
-4.630949975682195907e-01 -7.557023530826018076e-01 -4.630949975682195907e-01
-3.330162661198550200e-01 -8.039723861574018526e-01 -4.926749118799975680e-01
-2.005423048513400308e-01 -8.353188162906891590e-01 -5.118840289710493430e-01
-6.695366011503915693e-02 -8.507269132579422521e-01 -5.213261229363185256e-01
6.695366011503915693e-02 -8.507269132579422521e-01 -5.213261229363185256e-01
2.005423048513401696e-01 -8.353188162906891590e-01 -5.118840289710493430e-01
3.330162661198550755e-01 -8.039723861574018526e-01 -4.926749118799975680e-01
4.630949975682195907e-01 -7.557023530826018076e-01 -4.630949975682195907e-01
5.886742725082763084e-01 -6.892490165479300268e-01 -4.223723405652445306e-01
-5.446628986061214928e-01 -6.377183185105753660e-01 -5.446628986061214928e-01
-4.223723405652445306e-01 -6.892490165479300268e-01 -5.886742725082763084e-01
-3.004209445317131966e-01 -7.252803187093972426e-01 -6.194479117564835047e-01
-1.795892461802634510e-01 -7.480430458253629622e-01 -6.388891173347053254e-01
-5.973836788544846510e-02 -7.590479329574324474e-01 -6.482881788799113032e-01
5.973836788544846510e-02 -7.590479329574324474e-01 -6.482881788799113032e-01
1.795892461802635898e-01 -7.480430458253629622e-01 -6.388891173347053254e-01
3.004209445317132521e-01 -7.252803187093972426e-01 -6.194479117564835047e-01
4.223723405652445306e-01 -6.892490165479300268e-01 -5.886742725082763084e-01
5.446628986061214928e-01 -6.377183185105753660e-01 -5.446628986061214928e-01
5.446628986061214928e-01 -5.446628986061214928e-01 6.377183185105753660e-01
4.223723405652445306e-01 -5.886742725082763084e-01 6.892490165479300268e-01
3.004209445317131966e-01 -6.194479117564835047e-01 7.252803187093972426e-01
1.795892461802634510e-01 -6.388891173347053254e-01 7.480430458253629622e-01
5.973836788544847898e-02 -6.482881788799114142e-01 7.590479329574325584e-01
-5.973836788544847898e-02 -6.482881788799114142e-01 7.590479329574325584e-01
-1.795892461802635620e-01 -6.388891173347052144e-01 7.480430458253628512e-01
-3.004209445317132521e-01 -6.194479117564835047e-01 7.252803187093972426e-01
-4.223723405652445306e-01 -5.886742725082763084e-01 6.892490165479300268e-01
-5.446628986061214928e-01 -5.446628986061214928e-01 6.377183185105753660e-01
5.886742725082763084e-01 -4.223723405652445306e-01 6.892490165479300268e-01
4.630949975682195907e-01 -4.630949975682195907e-01 7.557023530826018076e-01
3.330162661198550755e-01 -4.926749118799976790e-01 8.039723861574019637e-01
2.005423048513400308e-01 -5.118840289710493430e-01 8.353188162906891590e-01
6.695366011503915693e-02 -5.213261229363185256e-01 8.507269132579422521e-01
-6.695366011503915693e-02 -5.213261229363185256e-01 8.507269132579422521e-01
-2.005423048513401696e-01 -5.118840289710493430e-01 8.353188162906891590e-01
-3.330162661198550755e-01 -4.926749118799975680e-01 8.039723861574018526e-01
-4.630949975682195907e-01 -4.630949975682195907e-01 7.557023530826018076e-01
-5.886742725082763084e-01 -4.223723405652445306e-01 6.892490165479300268e-01
6.194479117564835047e-01 -3.004209445317131966e-01 7.252803187093972426e-01
4.926749118799976790e-01 -3.330162661198550755e-01 8.039723861574019637e-01
3.574067443365932517e-01 -3.574067443365932517e-01 8.628562094610168209e-01
2.165412174317463689e-01 -3.736036849602299981e-01 9.019590831835524458e-01
7.251944820806721648e-02 -3.816758263011194030e-01 9.214469562861201668e-01
-7.251944820806721648e-02 -3.816758263011194030e-01 9.214469562861201668e-01
-2.165412174317465077e-01 -3.736036849602299981e-01 9.019590831835524458e-01
-3.574067443365933072e-01 -3.574067443365932517e-01 8.628562094610168209e-01
-4.926749118799976790e-01 -3.330162661198550755e-01 8.039723861574019637e-01
-6.194479117564835047e-01 -3.004209445317131966e-01 7.252803187093972426e-01
6.388891173347053254e-01 -1.795892461802634510e-01 7.480430458253629622e-01
5.118840289710493430e-01 -2.005423048513400308e-01 8.353188162906891590e-01
3.736036849602299981e-01 -2.165412174317463689e-01 9.019590831835524458e-01
2.273330785083482464e-01 -2.273330785083482464e-01 9.469104196447699628e-01
7.630406470389762552e-02 -2.327647760893327700e-01 9.695350683300454353e-01
-7.630406470389762552e-02 -2.327647760893327700e-01 9.695350683300454353e-01
-2.273330785083483574e-01 -2.273330785083482186e-01 9.469104196447698518e-01
-3.736036849602301091e-01 -2.165412174317463689e-01 9.019590831835524458e-01
-5.118840289710493430e-01 -2.005423048513400308e-01 8.353188162906891590e-01
-6.388891173347053254e-01 -1.795892461802634510e-01 7.480430458253629622e-01
6.482881788799114142e-01 -5.973836788544847898e-02 7.590479329574325584e-01
5.213261229363185256e-01 -6.695366011503915693e-02 8.507269132579422521e-01
3.816758263011194030e-01 -7.251944820806721648e-02 9.214469562861201668e-01
2.327647760893327700e-01 -7.630406470389762552e-02 9.695350683300454353e-01
7.821871455350018487e-02 -7.821871455350018487e-02 9.938630013171816380e-01
-7.821871455350018487e-02 -7.821871455350018487e-02 9.938630013171816380e-01
-2.327647760893329365e-01 -7.630406470389762552e-02 9.695350683300454353e-01
-3.816758263011195140e-01 -7.251944820806721648e-02 9.214469562861201668e-01
-5.213261229363185256e-01 -6.695366011503915693e-02 8.507269132579422521e-01
-6.482881788799114142e-01 -5.973836788544847898e-02 7.590479329574325584e-01
6.482881788799114142e-01 5.973836788544847898e-02 7.590479329574325584e-01
5.213261229363185256e-01 6.695366011503915693e-02 8.507269132579422521e-01
3.816758263011194030e-01 7.251944820806721648e-02 9.214469562861201668e-01
2.327647760893327700e-01 7.630406470389762552e-02 9.695350683300454353e-01
7.821871455350018487e-02 7.821871455350018487e-02 9.938630013171816380e-01
-7.821871455350018487e-02 7.821871455350018487e-02 9.938630013171816380e-01
-2.327647760893329365e-01 7.630406470389762552e-02 9.695350683300454353e-01
-3.816758263011195140e-01 7.251944820806721648e-02 9.214469562861201668e-01
-5.213261229363185256e-01 6.695366011503915693e-02 8.507269132579422521e-01
-6.482881788799114142e-01 5.973836788544847898e-02 7.590479329574325584e-01
6.388891173347052144e-01 1.795892461802635620e-01 7.480430458253628512e-01
5.118840289710493430e-01 2.005423048513401696e-01 8.353188162906891590e-01
3.736036849602299981e-01 2.165412174317465077e-01 9.019590831835524458e-01
2.273330785083482186e-01 2.273330785083483574e-01 9.469104196447698518e-01
7.630406470389762552e-02 2.327647760893329365e-01 9.695350683300454353e-01
-7.630406470389762552e-02 2.327647760893329365e-01 9.695350683300454353e-01
-2.273330785083483574e-01 2.273330785083483574e-01 9.469104196447698518e-01
-3.736036849602300536e-01 2.165412174317464800e-01 9.019590831835522238e-01
-5.118840289710493430e-01 2.005423048513401696e-01 8.353188162906891590e-01
-6.388891173347052144e-01 1.795892461802635620e-01 7.480430458253628512e-01
6.194479117564835047e-01 3.004209445317132521e-01 7.252803187093972426e-01
4.926749118799975680e-01 3.330162661198550755e-01 8.039723861574018526e-01
3.574067443365932517e-01 3.574067443365933072e-01 8.628562094610168209e-01
2.165412174317463689e-01 3.736036849602301091e-01 9.019590831835524458e-01
7.251944820806721648e-02 3.816758263011195140e-01 9.214469562861201668e-01
-7.251944820806721648e-02 3.816758263011195140e-01 9.214469562861201668e-01
-2.165412174317464800e-01 3.736036849602300536e-01 9.019590831835522238e-01
-3.574067443365933072e-01 3.574067443365933072e-01 8.628562094610168209e-01
-4.926749118799975680e-01 3.330162661198550755e-01 8.039723861574018526e-01
-6.194479117564835047e-01 3.004209445317132521e-01 7.252803187093972426e-01
5.886742725082763084e-01 4.223723405652445306e-01 6.892490165479300268e-01
4.630949975682195907e-01 4.630949975682195907e-01 7.557023530826018076e-01
3.330162661198550755e-01 4.926749118799976790e-01 8.039723861574019637e-01
2.005423048513400308e-01 5.118840289710493430e-01 8.353188162906891590e-01
6.695366011503915693e-02 5.213261229363185256e-01 8.507269132579422521e-01
-6.695366011503915693e-02 5.213261229363185256e-01 8.507269132579422521e-01
-2.005423048513401696e-01 5.118840289710493430e-01 8.353188162906891590e-01
-3.330162661198550755e-01 4.926749118799975680e-01 8.039723861574018526e-01
-4.630949975682195907e-01 4.630949975682195907e-01 7.557023530826018076e-01
-5.886742725082763084e-01 4.223723405652445306e-01 6.892490165479300268e-01
5.446628986061214928e-01 5.446628986061214928e-01 6.377183185105753660e-01
4.223723405652445306e-01 5.886742725082763084e-01 6.892490165479300268e-01
3.004209445317131966e-01 6.194479117564835047e-01 7.252803187093972426e-01
1.795892461802634510e-01 6.388891173347053254e-01 7.480430458253629622e-01
5.973836788544847898e-02 6.482881788799114142e-01 7.590479329574325584e-01
-5.973836788544847898e-02 6.482881788799114142e-01 7.590479329574325584e-01
-1.795892461802635620e-01 6.388891173347052144e-01 7.480430458253628512e-01
-3.004209445317132521e-01 6.194479117564835047e-01 7.252803187093972426e-01
-4.223723405652445306e-01 5.886742725082763084e-01 6.892490165479300268e-01
-5.446628986061214928e-01 5.446628986061214928e-01 6.377183185105753660e-01
-5.446628986061214928e-01 -5.446628986061214928e-01 -6.377183185105753660e-01
-4.223723405652445306e-01 -5.886742725082763084e-01 -6.892490165479300268e-01
-3.004209445317131966e-01 -6.194479117564835047e-01 -7.252803187093972426e-01
-1.795892461802634510e-01 -6.388891173347053254e-01 -7.480430458253629622e-01
-5.973836788544847898e-02 -6.482881788799114142e-01 -7.590479329574325584e-01
5.973836788544847898e-02 -6.482881788799114142e-01 -7.590479329574325584e-01
1.795892461802635620e-01 -6.388891173347052144e-01 -7.480430458253628512e-01
3.004209445317132521e-01 -6.194479117564835047e-01 -7.252803187093972426e-01
4.223723405652445306e-01 -5.886742725082763084e-01 -6.892490165479300268e-01
5.446628986061214928e-01 -5.446628986061214928e-01 -6.377183185105753660e-01
-5.886742725082763084e-01 -4.223723405652445306e-01 -6.892490165479300268e-01
-4.630949975682195907e-01 -4.630949975682195907e-01 -7.557023530826018076e-01
-3.330162661198550755e-01 -4.926749118799976790e-01 -8.039723861574019637e-01
-2.005423048513400308e-01 -5.118840289710493430e-01 -8.353188162906891590e-01
-6.695366011503915693e-02 -5.213261229363185256e-01 -8.507269132579422521e-01
6.695366011503915693e-02 -5.213261229363185256e-01 -8.507269132579422521e-01
2.005423048513401696e-01 -5.118840289710493430e-01 -8.353188162906891590e-01
3.330162661198550755e-01 -4.926749118799975680e-01 -8.039723861574018526e-01
4.630949975682195907e-01 -4.630949975682195907e-01 -7.557023530826018076e-01
5.886742725082763084e-01 -4.223723405652445306e-01 -6.892490165479300268e-01
-6.194479117564835047e-01 -3.004209445317131966e-01 -7.252803187093972426e-01
-4.926749118799976790e-01 -3.330162661198550755e-01 -8.039723861574019637e-01
-3.574067443365932517e-01 -3.574067443365932517e-01 -8.628562094610168209e-01
-2.165412174317463689e-01 -3.736036849602299981e-01 -9.019590831835524458e-01
-7.251944820806721648e-02 -3.816758263011194030e-01 -9.214469562861201668e-01
7.251944820806721648e-02 -3.816758263011194030e-01 -9.214469562861201668e-01
2.165412174317465077e-01 -3.736036849602299981e-01 -9.019590831835524458e-01
3.574067443365933072e-01 -3.574067443365932517e-01 -8.628562094610168209e-01
4.926749118799976790e-01 -3.330162661198550755e-01 -8.039723861574019637e-01
6.194479117564835047e-01 -3.004209445317131966e-01 -7.252803187093972426e-01
-6.388891173347053254e-01 -1.795892461802634510e-01 -7.480430458253629622e-01
-5.118840289710493430e-01 -2.005423048513400308e-01 -8.353188162906891590e-01
-3.736036849602299981e-01 -2.165412174317463689e-01 -9.019590831835524458e-01
-2.273330785083482464e-01 -2.273330785083482464e-01 -9.469104196447699628e-01
-7.630406470389762552e-02 -2.327647760893327700e-01 -9.695350683300454353e-01
7.630406470389762552e-02 -2.327647760893327700e-01 -9.695350683300454353e-01
2.273330785083483574e-01 -2.273330785083482186e-01 -9.469104196447698518e-01
3.736036849602301091e-01 -2.165412174317463689e-01 -9.019590831835524458e-01
5.118840289710493430e-01 -2.005423048513400308e-01 -8.353188162906891590e-01
6.388891173347053254e-01 -1.795892461802634510e-01 -7.480430458253629622e-01
-6.482881788799114142e-01 -5.973836788544847898e-02 -7.590479329574325584e-01
-5.213261229363185256e-01 -6.695366011503915693e-02 -8.507269132579422521e-01
-3.816758263011194030e-01 -7.251944820806721648e-02 -9.214469562861201668e-01
-2.327647760893327700e-01 -7.630406470389762552e-02 -9.695350683300454353e-01
-7.821871455350018487e-02 -7.821871455350018487e-02 -9.938630013171816380e-01
7.821871455350018487e-02 -7.821871455350018487e-02 -9.938630013171816380e-01
2.327647760893329365e-01 -7.630406470389762552e-02 -9.695350683300454353e-01
3.816758263011195140e-01 -7.251944820806721648e-02 -9.214469562861201668e-01
5.213261229363185256e-01 -6.695366011503915693e-02 -8.507269132579422521e-01
6.482881788799114142e-01 -5.973836788544847898e-02 -7.590479329574325584e-01
-6.482881788799114142e-01 5.973836788544847898e-02 -7.590479329574325584e-01
-5.213261229363185256e-01 6.695366011503915693e-02 -8.507269132579422521e-01
-3.816758263011194030e-01 7.251944820806721648e-02 -9.214469562861201668e-01
-2.327647760893327700e-01 7.630406470389762552e-02 -9.695350683300454353e-01
-7.821871455350018487e-02 7.821871455350018487e-02 -9.938630013171816380e-01
7.821871455350018487e-02 7.821871455350018487e-02 -9.938630013171816380e-01
2.327647760893329365e-01 7.630406470389762552e-02 -9.695350683300454353e-01
3.816758263011195140e-01 7.251944820806721648e-02 -9.214469562861201668e-01
5.213261229363185256e-01 6.695366011503915693e-02 -8.507269132579422521e-01
6.482881788799114142e-01 5.973836788544847898e-02 -7.590479329574325584e-01
-6.388891173347052144e-01 1.795892461802635620e-01 -7.480430458253628512e-01
-5.118840289710493430e-01 2.005423048513401696e-01 -8.353188162906891590e-01
-3.736036849602299981e-01 2.165412174317465077e-01 -9.019590831835524458e-01
-2.273330785083482186e-01 2.273330785083483574e-01 -9.469104196447698518e-01
-7.630406470389762552e-02 2.327647760893329365e-01 -9.695350683300454353e-01
7.630406470389762552e-02 2.327647760893329365e-01 -9.695350683300454353e-01
2.273330785083483574e-01 2.273330785083483574e-01 -9.469104196447698518e-01
3.736036849602300536e-01 2.165412174317464800e-01 -9.019590831835522238e-01
5.118840289710493430e-01 2.005423048513401696e-01 -8.353188162906891590e-01
6.388891173347052144e-01 1.795892461802635620e-01 -7.480430458253628512e-01
-6.194479117564835047e-01 3.004209445317132521e-01 -7.252803187093972426e-01
-4.926749118799975680e-01 3.330162661198550755e-01 -8.039723861574018526e-01
-3.574067443365932517e-01 3.574067443365933072e-01 -8.628562094610168209e-01
-2.165412174317463689e-01 3.736036849602301091e-01 -9.019590831835524458e-01
-7.251944820806721648e-02 3.816758263011195140e-01 -9.214469562861201668e-01
7.251944820806721648e-02 3.816758263011195140e-01 -9.214469562861201668e-01
2.165412174317464800e-01 3.736036849602300536e-01 -9.019590831835522238e-01
3.574067443365933072e-01 3.574067443365933072e-01 -8.628562094610168209e-01
4.926749118799975680e-01 3.330162661198550755e-01 -8.039723861574018526e-01
6.194479117564835047e-01 3.004209445317132521e-01 -7.252803187093972426e-01
-5.886742725082763084e-01 4.223723405652445306e-01 -6.892490165479300268e-01
-4.630949975682195907e-01 4.630949975682195907e-01 -7.557023530826018076e-01
-3.330162661198550755e-01 4.926749118799976790e-01 -8.039723861574019637e-01
-2.005423048513400308e-01 5.118840289710493430e-01 -8.353188162906891590e-01
-6.695366011503915693e-02 5.213261229363185256e-01 -8.507269132579422521e-01
6.695366011503915693e-02 5.213261229363185256e-01 -8.507269132579422521e-01
2.005423048513401696e-01 5.118840289710493430e-01 -8.353188162906891590e-01
3.330162661198550755e-01 4.926749118799975680e-01 -8.039723861574018526e-01
4.630949975682195907e-01 4.630949975682195907e-01 -7.557023530826018076e-01
5.886742725082763084e-01 4.223723405652445306e-01 -6.892490165479300268e-01
-5.446628986061214928e-01 5.446628986061214928e-01 -6.377183185105753660e-01
-4.223723405652445306e-01 5.886742725082763084e-01 -6.892490165479300268e-01
-3.004209445317131966e-01 6.194479117564835047e-01 -7.252803187093972426e-01
-1.795892461802634510e-01 6.388891173347053254e-01 -7.480430458253629622e-01
-5.973836788544847898e-02 6.482881788799114142e-01 -7.590479329574325584e-01
5.973836788544847898e-02 6.482881788799114142e-01 -7.590479329574325584e-01
1.795892461802635620e-01 6.388891173347052144e-01 -7.480430458253628512e-01
3.004209445317132521e-01 6.194479117564835047e-01 -7.252803187093972426e-01
4.223723405652445306e-01 5.886742725082763084e-01 -6.892490165479300268e-01
5.446628986061214928e-01 5.446628986061214928e-01 -6.377183185105753660e-01
